1376
2.90526 0.067 1.19066 204 204 204
2.82926 0.265 1.15266 204 204 204
2.88226 0.243 1.12966 204 204 204
2.83426 0.025 1.23466 204 204 204
2.87026 0.286 1.09766 204 204 204
3.53126 0.211 1.18666 204 204 204
2.87326 0.232 1.14466 204 204 204
2.73026 0.132 1.26366 204 204 204
2.68926 0.027 1.29466 204 204 204
3.17226 0.123 1.15266 204 204 204
3.08726 0.188 1.11666 204 204 204
3.08326 0.227 1.08866 204 204 204
3.38626 0.103 1.20366 204 204 204
2.88026 0.292 1.08166 204 204 204
3.33526 0.25 1.08266 204 204 204
3.33426 0.243 1.09366 204 204 204
2.96226 0.041 1.17266 204 204 204
3.47826 0.265 1.07066 204 204 204
2.85526 0.12 1.20766 204 204 204
2.68826 0.228 1.24366 204 204 204
2.71926 0.369 1.10266 204 204 204
2.87426 0.159 1.18366 204 204 204
2.98326 0.251 1.07766 204 204 204
2.70726 0.672 1.33366 204 204 204
3.09226 0.092 1.15666 204 204 204
3.02926 0.019 1.16666 204 204 204
3.17126 0.169 1.13266 204 204 204
2.72726 1.04822 2.71688 204 204 204
2.77826 1.06922 2.25988 204 204 204
2.70026 1.23422 2.35088 204 204 204
2.83926 0.89622 2.07988 204 204 204
2.74426 1.05522 2.62588 204 204 204
2.69326 1.23122 2.44288 204 204 204
2.83926 0.89722 2.35088 204 204 204
2.76726 1.06422 1.99088 204 204 204
2.69926 1.23422 2.07988 204 204 204
2.77426 1.06722 2.07988 204 204 204
2.84226 0.89822 2.16888 204 204 204
2.69226 1.23022 1.99088 204 204 204
2.70326 1.23522 2.16888 204 204 204
2.70626 1.03922 2.80688 204 204 204
2.77826 1.06922 2.16888 204 204 204
2.77526 1.06722 2.35088 204 204 204
2.68426 1.22622 2.53388 204 204 204
2.70326 1.23522 2.25988 204 204 204
2.76826 1.06522 2.44288 204 204 204
2.84326 0.89822 2.25988 204 204 204
2.75826 1.06022 2.53388 204 204 204
2.45604 1.50822 2.80688 204 204 204
2.61404 1.39522 2.35088 204 204 204
2.39704 1.68722 2.53388 204 204 204
2.41104 1.69822 2.07988 204 204 204
2.55004 1.35822 2.80688 204 204 204
2.37004 1.66622 2.71688 204 204 204
2.56904 1.36922 2.71688 204 204 204
2.40604 1.69422 2.44288 204 204 204
2.51704 1.54922 2.07988 204 204 204
2.51104 1.54522 1.99088 204 204 204
2.41404 1.70022 2.16888 204 204 204
2.35204 1.65322 2.80688 204 204 204
2.61704 1.39722 2.16888 204 204 204
2.23904 1.79022 2.80688 204 204 204
2.52104 1.55222 2.16888 204 204 204
2.60804 1.39122 2.44288 204 204 204
2.59804 1.38622 2.53388 204 204 204
2.38504 1.67822 2.62588 204 204 204
2.65404 1.21122 2.71688 204 204 204
2.41404 1.70022 2.25988 204 204 204
2.50304 1.54022 2.53388 204 204 204
2.60704 1.39122 1.99088 204 204 204
2.52104 1.55222 2.25988 204 204 204
2.58604 1.37822 2.62588 204 204 204
2.47504 1.52122 2.71688 204 204 204
2.61704 1.39722 2.25988 204 204 204
2.40504 1.69322 1.99088 204 204 204
2.41104 1.69822 2.35088 204 204 204
2.51804 1.55022 2.35088 204 204 204
2.51204 1.54622 2.44288 204 204 204
2.61404 1.39422 2.07988 204 204 204
2.49004 1.53122 2.62588 204 204 204
2.67004 1.21922 2.62588 204 204 204
2.63404 1.20122 2.80688 204 204 204
2.84426 0.239 2.63188 204 204 204
2.86026 0.332 2.61788 204 204 204
3.10826 0.025 2.57888 204 204 204
2.90826 0.178 2.80688 204 204 204
3.02326 0.256 2.59488 204 204 204
3.16826 0.238 2.82788 204 204 204
3.11426 0.271 2.72788 204 204 204
2.79626 0.023 2.80088 204 204 204
2.98926 0.257 2.56988 204 204 204
3.12226 0.298 2.84288 204 204 204
2.94826 0.076 2.47188 204 204 204
3.17226 0.133 2.69988 204 204 204
2.86026 0.248 2.58588 204 204 204
3.10326 0.275 2.71188 204 204 204
2.84326 0.049 2.63688 204 204 204
2.88526 -0 2.52288 204 204 204
3.15226 -0 2.62988 204 204 204
2.82426 0.301 2.70388 204 204 204
3.05426 0.051 2.53288 204 204 204
2.79826 0.351 2.79788 204 204 204
2.85026 0.167 2.61388 204 204 204
2.84726 0.092 2.62688 204 204 204
3.09526 0.291 2.72388 204 204 204
2.82526 0.139 2.69188 204 204 204
2.83626 0.053 2.65688 204 204 204
2.95526 -0 2.62588 204 204 204
2.82826 0.379 2.74488 204 204 204
3.08326 0.327 2.81388 204 204 204
2.91026 -0 2.47088 204 204 204
2.83226 0.315 2.67588 204 204 204
3.03626 0.051 2.51788 204 204 204
2.94926 0.051 2.46888 204 204 204
3.01326 0.321 2.66588 204 204 204
2.87126 0.321 2.59588 204 204 204
2.85326 0.086 2.61088 204 204 204
2.82226 0.891 2.53388 204 204 204
2.85026 0.132 2.61688 204 204 204
3.05826 0.253 2.62388 204 204 204
2.96426 0.349 2.67988 204 204 204
2.94026 -0 2.46488 204 204 204
3.06926 0.1 2.55388 204 204 204
3.14126 0.14 2.64788 204 204 204
3.02726 0.359 2.81088 204 204 204
2.90126 0.072 2.48388 204 204 204
3.11026 0.226 2.66188 204 204 204
3.10326 0.311 2.81288 204 204 204
2.85626 0.085 2.60388 204 204 204
3.00526 0.334 2.68388 204 204 204
3.09126 -0 2.56188 204 204 204
3.09026 0.19 2.61088 204 204 204
2.89626 0.093 2.49288 204 204 204
2.86426 0.233 2.57288 204 204 204
2.95026 0.239 2.53188 204 204 204
2.96226 0.294 2.58688 204 204 204
2.96326 0.364 2.07988 204 204 204
2.88426 0.176 2.52288 204 204 204
3.04026 0.354 2.82188 204 204 204
2.89926 0.168 2.49788 204 204 204
3.19226 0.143 2.76088 204 204 204
3.01126 0.237 2.56988 204 204 204
2.82426 0.08 2.69588 204 204 204
2.89226 0.113 2.50288 204 204 204
3.06326 0.233 2.61388 204 204 204
2.88326 0.29 2.56088 204 204 204
2.89626 0.352 2.64488 204 204 204
3.22926 0.076 2.83688 204 204 204
2.83626 0.018 2.65688 204 204 204
3.20226 0.121 2.77388 204 204 204
3.00826 0.36 2.76788 204 204 204
2.87526 0.264 2.55188 204 204 204
3.19826 -0 2.71988 204 204 204
3.12426 0.025 2.59588 204 204 204
2.86226 0.143 2.58288 204 204 204
2.87426 0.089 2.55388 204 204 204
2.80626 0.154 2.76388 204 204 204
2.91126 0.194 2.49988 204 204 204
2.98726 -0 2.07988 204 204 204
2.86226 0.015 2.58988 204 204 204
2.91826 0.238 2.52088 204 204 204
2.86826 0.137 2.56888 204 204 204
3.01326 0.125 2.51688 204 204 204
2.83026 0.152 2.67488 204 204 204
2.97226 0.051 2.47788 204 204 204
2.84926 0.228 2.61688 204 204 204
2.86126 0.045 2.59088 204 204 204
2.81026 0.389 2.82288 204 204 204
2.85126 0.015 2.61788 204 204 204
2.83726 0.105 2.65388 204 204 204
3.03526 0.076 2.52088 204 204 204
2.84526 0.163 2.62988 204 204 204
2.85526 0.261 2.60088 204 204 204
2.83626 0.071 2.65588 204 204 204
2.80426 0.316 2.77588 204 204 204
2.90026 0.384 2.76088 204 204 204
2.93726 0.101 2.47388 204 204 204
2.91426 0.172 2.49188 204 204 204
2.86326 0.379 2.71988 204 204 204
2.84726 0.047 2.62788 204 204 204
2.86226 0.09 2.58688 204 204 204
2.86526 0.176 2.57388 204 204 204
2.99626 0.126 2.50588 204 204 204
2.82126 0.143 2.70888 204 204 204
3.07426 0.335 2.82988 204 204 204
3.12026 0.186 2.64488 204 204 204
2.86526 0.095 2.57788 204 204 204
3.14826 0.159 2.67088 204 204 204
2.97726 0.293 2.59688 204 204 204
3.22726 0.095 2.84088 204 204 204
2.80626 0.045 2.76588 204 204 204
2.89526 0.294 2.55988 204 204 204
3.13726 0.269 2.78788 204 204 204
2.82726 0.176 2.68688 204 204 204
2.98126 0.182 2.07988 204 204 204
3.08526 0.211 2.61988 204 204 204
2.85926 0.156 2.58988 204 204 204
2.86826 0.276 2.56988 204 204 204
2.99626 0.322 2.65288 204 204 204
2.78426 0.36 2.84388 204 204 204
3.21726 0.04 2.78088 204 204 204
2.87026 0.35 2.63988 204 204 204
2.85426 0.015 2.60888 204 204 204
2.80126 0.046 2.78388 204 204 204
2.97126 0.196 2.51888 204 204 204
2.86626 -0 2.57788 204 204 204
2.89126 0.089 2.50488 204 204 204
3.18626 0.088 2.70888 204 204 204
2.86726 0.389 2.77788 204 204 204
2.85526 0.37 2.69088 204 204 204
2.85926 0.391 2.80388 204 204 204
3.17326 0.214 2.79088 204 204 204
2.81126 0.312 2.75188 204 204 204
2.91426 0.217 2.50888 204 204 204
3.22526 -0 2.80288 204 204 204
2.96426 0.15 2.49588 204 204 204
2.93726 0.545 2.25988 204 204 204
3.21826 -0 2.77888 204 204 204
2.84026 0.155 2.64488 204 204 204
3.18826 0.162 2.76688 204 204 204
2.87026 0.281 2.56688 204 204 204
2.93026 0.179 2.71688 204 204 204
3.05026 0.347 2.80388 204 204 204
2.82826 0.266 2.68788 204 204 204
3.16326 0.206 2.74688 204 204 204
3.00426 0.308 2.63588 204 204 204
2.87626 0.054 2.54788 204 204 204
3.00226 -0 2.49188 204 204 204
2.78426 0.331 2.84188 204 204 204
2.82926 0.096 2.67988 204 204 204
2.84026 0.101 2.64388 204 204 204
2.88826 -0 2.51288 204 204 204
2.98826 0.373 2.80888 204 204 204
2.90826 0.123 2.48188 204 204 204
2.87226 0.105 2.55788 204 204 204
3.17826 0.197 2.78188 204 204 204
2.79226 0.368 2.82188 204 204 204
2.98226 0.217 2.53688 204 204 204
2.90526 0.193 2.50188 204 204 204
2.83126 0.305 2.67788 204 204 204
2.94326 0.381 2.78088 204 204 204
2.80626 0.067 2.76588 204 204 204
2.83226 0.074 2.66788 204 204 204
3.19426 0.086 2.72788 204 204 204
2.90426 0.122 2.48488 204 204 204
2.81026 0.284 2.75488 204 204 204
2.90026 0.192 2.50388 204 204 204
3.16826 0.091 2.67288 204 204 204
2.84826 0.119 2.62188 204 204 204
2.84526 0.295 2.63188 204 204 204
2.85626 0.168 2.59788 204 204 204
3.16326 0.135 2.68288 204 204 204
3.13826 0.049 2.61488 204 204 204
2.87926 0.165 2.53488 204 204 204
2.82326 0.376 2.74488 204 204 204
3.20526 0.102 2.76888 204 204 204
2.82026 0.083 2.71188 204 204 204
3.20026 0.184 2.84288 204 204 204
2.90426 0.371 2.70388 204 204 204
3.16626 0.114 2.67788 204 204 204
2.84726 -0 2.62688 204 204 204
3.11026 0.166 2.62088 204 204 204
2.90326 0.169 2.49488 204 204 204
2.90026 0.326 2.59888 204 204 204
2.98526 0.183 2.25988 204 204 204
2.84226 0.35 2.66688 204 204 204
3.20526 -0 2.73888 204 204 204
2.82426 0.218 2.69888 204 204 204
2.86826 0.248 2.56288 204 204 204
3.15226 0.138 2.66488 204 204 204
2.95326 0.375 2.75788 204 204 204
2.84126 0.211 2.64288 204 204 204
2.89626 0.723 2.25988 204 204 204
2.90526 0.257 2.53188 204 204 204
2.88926 0.31 2.57688 204 204 204
2.83826 0.235 2.65388 204 204 204
2.99326 0.15 2.51288 204 204 204
2.82726 0.366 2.71888 204 204 204
2.88226 -0 2.53288 204 204 204
2.79226 -0 2.81688 204 204 204
2.82026 0.123 2.71088 204 204 204
2.83626 0.284 2.65888 204 204 204
2.79726 0.199 2.79988 204 204 204
2.88726 0.062 2.51788 204 204 204
2.79126 0.239 2.81888 204 204 204
2.85426 -0 2.60888 204 204 204
2.88526 0.204 2.52188 204 204 204
3.01626 0.216 2.55988 204 204 204
2.94426 0.126 2.48088 204 204 204
2.87426 0.717 2.53388 204 204 204
2.95826 0.258 2.54988 204 204 204
2.93726 0.545 2.16888 204 204 204
2.81726 0.307 2.72788 204 204 204
2.87726 0.338 2.61688 204 204 204
2.78726 -0 2.83088 204 204 204
2.91826 0.277 2.54788 204 204 204
2.93826 0.385 2.83388 204 204 204
2.81626 0.391 2.82288 204 204 204
2.95526 0.126 2.48488 204 204 204
2.86226 0.166 2.58188 204 204 204
2.87426 -0 2.55588 204 204 204
2.90226 0.024 2.47988 204 204 204
2.87926 0.362 2.66688 204 204 204
2.84126 0.262 2.64388 204 204 204
2.79126 0.306 2.82088 204 204 204
2.88426 0.102 2.52488 204 204 204
3.18826 0.066 2.70588 204 204 204
2.84326 0.033 2.63688 204 204 204
2.78626 0.22 2.83488 204 204 204
2.82526 0.119 2.69388 204 204 204
3.18326 0.18 2.77388 204 204 204
2.99126 -0 2.25988 204 204 204
2.79126 0.275 2.81988 204 204 204
3.19826 0.022 2.72088 204 204 204
2.84026 0.383 2.74488 204 204 204
2.84326 -0 2.63588 204 204 204
2.86426 0.109 2.58088 204 204 204
2.89326 0.091 2.49788 204 204 204
2.89426 0.275 2.54488 204 204 204
2.94026 0.026 2.46488 204 204 204
2.79126 0.352 2.82188 204 204 204
2.85326 0.073 2.61088 204 204 204
2.78726 0.023 2.83088 204 204 204
3.15526 0.177 2.69588 204 204 204
3.03026 0.125 2.52988 204 204 204
3.12426 0.164 2.63688 204 204 204
2.93426 0.326 2.61288 204 204 204
2.96426 0.364 2.35088 204 204 204
2.82026 0.042 2.71288 204 204 204
2.87526 0.111 2.54788 204 204 204
2.96726 0.365 2.25988 204 204 204
2.89726 -0 2.48988 204 204 204
3.13226 0.25 2.73188 204 204 204
3.21126 0.021 2.75888 204 204 204
2.89226 0.163 2.50488 204 204 204
2.78226 0.158 2.84588 204 204 204
2.95326 0.383 2.84188 204 204 204
2.97826 0.238 2.54688 204 204 204
3.19026 0.176 2.79288 204 204 204
2.98726 -0 2.48288 204 204 204
2.84026 0.034 2.64588 204 204 204
2.87826 0.19 2.53688 204 204 204
2.92526 0.543 1.99088 204 204 204
2.89026 0.065 2.50888 204 204 204
2.85326 0.18 2.60688 204 204 204
2.81126 0.109 2.74688 204 204 204
2.84426 0.329 2.64588 204 204 204
2.83226 0.387 2.77188 204 204 204
2.84826 0.263 2.62088 204 204 204
2.89126 0.722 2.07988 204 204 204
2.93326 0.544 2.07988 204 204 204
3.07226 0.333 2.79988 204 204 204
2.83326 0.092 2.66688 204 204 204
2.89526 0.165 2.50088 204 204 204
2.82526 0.385 2.77188 204 204 204
3.15926 0.192 2.72088 204 204 204
2.83526 0.359 2.69188 204 204 204
2.83326 0.391 2.84988 204 204 204
3.06626 0.322 2.73888 204 204 204
2.86326 0.264 2.57688 204 204 204
3.10426 0.314 2.84188 204 204 204
2.85526 0.105 2.60388 204 204 204
2.89126 0.388 2.78588 204 204 204
2.85626 0.072 2.60288 204 204 204
2.79126 0.257 2.81888 204 204 204
2.97526 0.182 2.44288 204 204 204
2.83426 0.145 2.66088 204 204 204
2.82826 -0 2.68088 204 204 204
3.21226 -0 2.75788 204 204 204
3.09426 0.32 2.82788 204 204 204
2.91026 0.099 2.47688 204 204 204
2.92326 0.377 2.74188 204 204 204
3.03326 0.348 2.75988 204 204 204
2.79126 0.22 2.81788 204 204 204
2.84426 0.111 2.63288 204 204 204
2.80226 0.388 2.84688 204 204 204
2.84026 0.068 2.64588 204 204 204
2.91426 -0 2.46788 204 204 204
2.88426 0.06 2.52688 204 204 204
2.96126 0.173 2.50388 204 204 204
2.87926 0.268 2.54988 204 204 204
2.79726 0.341 2.79888 204 204 204
2.87826 0.288 2.56288 204 204 204
2.88426 0.04 2.52488 204 204 204
2.99926 0.217 2.54788 204 204 204
3.02826 0.29 2.63488 204 204 204
2.80726 0.175 2.76288 204 204 204
3.09826 0.146 2.59688 204 204 204
2.90326 -0 2.47888 204 204 204
2.82926 0.28 2.68388 204 204 204
2.80626 0.133 2.76488 204 204 204
3.04126 0.254 2.60888 204 204 204
3.18526 0.147 2.74188 204 204 204
2.86126 0.03 2.58988 204 204 204
2.80326 0.254 2.77888 204 204 204
2.92026 0.351 2.65488 204 204 204
3.06626 0.124 2.55888 204 204 204
2.94226 0.218 2.51588 204 204 204
2.80626 -0 2.76588 204 204 204
2.90526 0.049 2.47688 204 204 204
2.79726 0.179 2.80088 204 204 204
2.96426 0.325 2.62988 204 204 204
2.86526 0.385 2.74888 204 204 204
3.13426 0.219 2.69488 204 204 204
2.88226 0.146 2.52788 204 204 204
3.17726 0.15 2.72388 204 204 204
3.19526 0.124 2.75488 204 204 204
3.01526 0.101 2.51188 204 204 204
2.91226 0.357 2.71688 204 204 204
2.91426 0.388 2.84988 204 204 204
2.79726 0.305 2.79888 204 204 204
2.89326 0.255 2.53288 204 204 204
3.21126 0.041 2.75988 204 204 204
3.11026 0.294 2.76888 204 204 204
2.90426 0.073 2.47988 204 204 204
3.15426 0.263 2.84988 204 204 204
2.91926 0.025 2.46588 204 204 204
3.05126 0.214 2.58788 204 204 204
2.89926 0.047 2.48588 204 204 204
3.11226 0.3 2.79788 204 204 204
2.83726 0.339 2.66888 204 204 204
3.20526 0.137 2.79988 204 204 204
2.93926 0.173 2.49488 204 204 204
3.04526 0.288 2.64888 204 204 204
2.86726 0.08 2.57488 204 204 204
2.80126 0.135 2.78288 204 204 204
2.81526 0.263 2.73388 204 204 204
2.81226 0.335 2.74888 204 204 204
3.08926 0.075 2.56588 204 204 204
2.82826 0.077 2.68088 204 204 204
2.81926 0.339 2.72288 204 204 204
2.80126 0.068 2.78388 204 204 204
3.09926 0.299 2.75388 204 204 204
2.96326 0.181 2.53388 204 204 204
2.80226 0.373 2.79788 204 204 204
3.16326 -0 2.64788 204 204 204
2.85626 0.228 2.59788 204 204 204
2.87926 0.075 2.53988 204 204 204
2.97226 0.337 2.65988 204 204 204
2.86226 0.315 2.59888 204 204 204
3.04526 0.148 2.54988 204 204 204
2.79026 0.331 2.82088 204 204 204
3.14626 0.263 2.80488 204 204 204
2.80426 0.339 2.77388 204 204 204
2.86626 0.209 2.56788 204 204 204
2.95826 0.379 2.78988 204 204 204
2.83926 0.345 2.66788 204 204 204
3.10726 0.05 2.57988 204 204 204
2.83526 0.373 2.71788 204 204 204
2.84026 0.084 2.64488 204 204 204
2.79226 0.159 2.81688 204 204 204
2.82226 0.355 2.72088 204 204 204
2.97326 0.376 2.79888 204 204 204
2.97126 0.31 2.61288 204 204 204
3.03726 0.025 2.51688 204 204 204
2.87326 0.034 2.55688 204 204 204
2.81226 0.386 2.79788 204 204 204
2.91326 0.05 2.46988 204 204 204
2.85826 0.278 2.59188 204 204 204
2.85926 0.179 2.59088 204 204 204
2.86526 0.031 2.57988 204 204 204
3.11526 0.206 2.65288 204 204 204
3.07226 0.05 2.54788 204 204 204
2.82026 0.703 2.80688 204 204 204
2.89426 -0 2.49688 204 204 204
2.96026 0.026 2.47088 204 204 204
3.12826 0.237 2.70488 204 204 204
2.90026 0.12 2.48788 204 204 204
2.88526 0.083 2.52088 204 204 204
3.15426 0.211 2.72888 204 204 204
2.82926 0.115 2.67888 204 204 204
3.02026 0.195 2.55088 204 204 204
2.78726 0.046 2.83088 204 204 204
2.84226 0.274 2.63888 204 204 204
3.22126 0.078 2.80888 204 204 204
2.86226 -0 2.58888 204 204 204
2.80126 0.091 2.78388 204 204 204
2.89126 -0 2.50488 204 204 204
3.18026 0.13 2.71788 204 204 204
2.88126 0.171 2.52788 204 204 204
2.81526 0.064 2.72988 204 204 204
2.92626 0.196 2.50088 204 204 204
2.84126 0.392 2.82688 204 204 204
2.97026 -0 2.53388 204 204 204
2.79226 0.092 2.81688 204 204 204
2.78326 0.069 2.84488 204 204 204
2.85126 0.204 2.61088 204 204 204
3.13126 0.119 2.62488 204 204 204
2.85026 0.101 2.61688 204 204 204
3.20126 0.155 2.80588 204 204 204
3.17126 0.202 2.76388 204 204 204
3.12126 0.294 2.81388 204 204 204
2.82526 0.313 2.70188 204 204 204
2.86126 0.103 2.58988 204 204 204
2.78726 0.18 2.83288 204 204 204
3.15926 0.235 2.78288 204 204 204
2.98526 0.183 2.16888 204 204 204
2.87526 0.237 2.54688 204 204 204
3.04726 0.343 2.77288 204 204 204
2.85326 0.098 2.61088 204 204 204
3.14726 0.095 2.63788 204 204 204
2.92926 0.101 2.47288 204 204 204
3.05626 0.193 2.57988 204 204 204
2.91726 0.37 2.70988 204 204 204
2.78126 0.238 2.85188 204 204 204
2.87926 0.388 2.78188 204 204 204
2.91726 0.149 2.48488 204 204 204
3.19726 0.043 2.72188 204 204 204
3.13926 -0 2.61288 204 204 204
3.00126 0.051 2.49488 204 204 204
2.89226 0.21 2.51488 204 204 204
3.21426 0.08 2.78588 204 204 204
3.02426 0.172 2.54288 204 204 204
3.09126 0.025 2.56188 204 204 204
2.83126 0.894 1.99088 204 204 204
2.85926 0.31 2.60088 204 204 204
2.79726 0.114 2.80088 204 204 204
2.93226 0.37 2.71688 204 204 204
2.98326 0.276 2.58188 204 204 204
2.87726 0.323 2.59588 204 204 204
3.05126 0.271 2.63588 204 204 204
3.18026 0.166 2.74888 204 204 204
2.85426 0.03 2.60988 204 204 204
3.05226 0.348 2.83488 204 204 204
3.12826 0.275 2.77188 204 204 204
2.92226 0.101 2.47388 204 204 204
2.90226 0.097 2.48388 204 204 204
2.95326 0.277 2.56288 204 204 204
3.01326 0.364 2.79888 204 204 204
2.90626 -0 2.47488 204 204 204
3.18226 0.023 2.68388 204 204 204
2.87726 0.159 2.54288 204 204 204
3.19126 -0 2.70188 204 204 204
2.83026 0.293 2.68088 204 204 204
2.85126 0.145 2.61188 204 204 204
2.81126 0.044 2.74788 204 204 204
2.85326 0.251 2.60588 204 204 204
2.89426 0.116 2.49688 204 204 204
2.90626 0.098 2.47988 204 204 204
2.86826 0.3 2.58088 204 204 204
2.97526 0.173 2.51088 204 204 204
2.80226 0.198 2.78188 204 204 204
3.06826 0.269 2.65188 204 204 204
2.80926 0.371 2.77188 204 204 204
2.88826 0.273 2.54588 204 204 204
2.87026 0.016 2.56688 204 204 204
3.22126 0.131 2.84988 204 204 204
2.85926 0.115 2.59288 204 204 204
3.06326 0.148 2.56488 204 204 204
2.94626 0.101 2.47588 204 204 204
2.84726 0.031 2.62788 204 204 204
2.83326 0.324 2.67288 204 204 204
2.84726 0.016 2.62688 204 204 204
2.79726 0.219 2.79988 204 204 204
3.06926 0.299 2.69388 204 204 204
2.82626 0.157 2.68988 204 204 204
2.84326 0.08 2.63588 204 204 204
3.19726 0.172 2.81188 204 204 204
3.07426 0.251 2.63988 204 204 204
2.86226 0.122 2.58588 204 204 204
2.85326 0.216 2.60388 204 204 204
2.88426 0.72 1.99088 204 204 204
3.20526 0.021 2.73988 204 204 204
3.17326 -0 2.66588 204 204 204
2.86326 0.371 2.69188 204 204 204
3.11726 0.121 2.60788 204 204 204
2.83926 0.306 2.65288 204 204 204
2.90226 0.145 2.49088 204 204 204
2.83226 0.354 2.69288 204 204 204
3.00726 0.173 2.53088 204 204 204
2.83226 0.392 2.82488 204 204 204
2.98826 -0 2.35088 204 204 204
2.89626 0.39 2.81588 204 204 204
2.83226 -0 2.66788 204 204 204
3.05326 0.076 2.53488 204 204 204
3.10726 0.286 2.73988 204 204 204
3.06926 0.213 2.60388 204 204 204
3.12126 0.255 2.71588 204 204 204
2.89226 0.722 2.35088 204 204 204
2.85726 0.389 2.77588 204 204 204
2.91226 0.075 2.47288 204 204 204
2.81126 0.066 2.74788 204 204 204
2.92826 0.382 2.77388 204 204 204
2.91626 0.541 2.53388 204 204 204
2.87826 0.351 2.64088 204 204 204
2.78326 0.023 2.84488 204 204 204
2.79626 -0 2.80088 204 204 204
2.96726 0.276 2.57188 204 204 204
2.82826 0.039 2.68088 204 204 204
2.89226 0.371 2.69888 204 204 204
2.88626 0.352 2.64188 204 204 204
2.83326 0.11 2.66588 204 204 204
2.85726 0.045 2.60088 204 204 204
3.07726 0.17 2.58788 204 204 204
2.83426 0.128 2.66388 204 204 204
2.86326 0.361 2.66488 204 204 204
2.88726 0.384 2.75588 204 204 204
2.95226 0.15 2.49088 204 204 204
2.85426 0.299 2.60588 204 204 204
3.02926 0.359 2.84088 204 204 204
3.18126 0.219 2.83688 204 204 204
2.91826 0.195 2.49988 204 204 204
2.83526 0.332 2.67088 204 204 204
3.12526 -0 2.59488 204 204 204
2.84226 0.225 2.63688 204 204 204
2.78926 0.378 2.84588 204 204 204
2.85926 0.134 2.59088 204 204 204
3.06226 0.341 2.81688 204 204 204
2.89226 0.187 2.50888 204 204 204
3.11326 0.304 2.82788 204 204 204
2.84026 0.315 2.64988 204 204 204
2.85326 0.323 2.62088 204 204 204
2.85126 0.392 2.82888 204 204 204
3.13826 0.276 2.81688 204 204 204
3.11826 0.28 2.75588 204 204 204
2.83026 0.348 2.69488 204 204 204
2.94026 0.361 2.69288 204 204 204
2.91226 0.295 2.56288 204 204 204
2.82426 0.361 2.71988 204 204 204
3.16526 0.219 2.77288 204 204 204
2.96226 0.367 2.73488 204 204 204
2.90026 0.39 2.84388 204 204 204
2.96726 0.126 2.48988 204 204 204
3.08426 0.123 2.57488 204 204 204
2.86426 0.2 2.57488 204 204 204
3.15926 0.156 2.68888 204 204 204
2.97326 0.258 2.55888 204 204 204
2.90626 0.024 2.47488 204 204 204
3.19526 0.158 2.78588 204 204 204
2.83726 0.122 2.65188 204 204 204
3.14826 0.228 2.73888 204 204 204
2.86026 0.214 2.58588 204 204 204
2.79426 0.374 2.82288 204 204 204
3.08026 0.231 2.62988 204 204 204
2.81826 0.319 2.72588 204 204 204
2.80126 0.023 2.78388 204 204 204
2.80126 0.113 2.78288 204 204 204
2.83626 0.163 2.65788 204 204 204
3.09026 0.248 2.65588 204 204 204
2.79726 0.257 2.79988 204 204 204
3.15026 0.196 2.70388 204 204 204
3.13826 0.233 2.72188 204 204 204
3.02926 0.319 2.67988 204 204 204
2.86526 0.047 2.58088 204 204 204
3.19926 0.14 2.77888 204 204 204
2.80326 0.288 2.77688 204 204 204
3.23226 0.039 2.83188 204 204 204
2.88726 0.156 2.51488 204 204 204
3.07326 0.025 2.54588 204 204 204
3.04226 0.172 2.55688 204 204 204
2.89126 0.043 2.50688 204 204 204
3.19126 0.107 2.73188 204 204 204
3.07326 0.192 2.59488 204 204 204
2.80626 0.111 2.76488 204 204 204
2.85026 0.031 2.61888 204 204 204
2.89126 0.326 2.59688 204 204 204
2.82726 0.332 2.69788 204 204 204
2.93926 0.051 2.46688 204 204 204
2.81726 0.294 2.72988 204 204 204
2.87626 0.135 2.54488 204 204 204
2.84326 0.016 2.63588 204 204 204
2.82126 0.163 2.70688 204 204 204
2.91826 0.05 2.46788 204 204 204
2.81126 0.022 2.74788 204 204 204
3.01026 0.149 2.52388 204 204 204
2.91526 0.34 2.62688 204 204 204
2.95826 0.076 2.47588 204 204 204
3.03726 0.352 2.79188 204 204 204
2.93126 0.218 2.51188 204 204 204
2.87426 0.152 2.55088 204 204 204
3.18226 -0 2.68388 204 204 204
2.84826 0.311 2.62588 204 204 204
2.80826 0.886 2.62588 204 204 204
3.05226 0.326 2.72488 204 204 204
2.90926 0.378 2.73488 204 204 204
2.82026 -0 2.71288 204 204 204
2.88326 0.39 2.81088 204 204 204
2.88726 0.391 2.83888 204 204 204
2.83626 0.088 2.65588 204 204 204
2.97926 -0 1.99088 204 204 204
2.93226 -0 2.46388 204 204 204
2.86226 0.392 2.83088 204 204 204
2.79726 0.136 2.80088 204 204 204
2.89626 0.046 2.49188 204 204 204
3.01926 0.026 2.50388 204 204 204
2.81126 0.324 2.75088 204 204 204
2.90526 0.387 2.79088 204 204 204
2.88826 0.252 2.53488 204 204 204
3.04626 0.235 2.59788 204 204 204
3.17626 0.184 2.75588 204 204 204
2.88926 0.184 2.51288 204 204 204
3.09426 0.168 2.60388 204 204 204
3.21326 0.134 2.82288 204 204 204
2.83826 0.296 2.65588 204 204 204
2.93226 0.026 2.46388 204 204 204
2.95526 0.363 1.99088 204 204 204
2.83126 0.228 2.67588 204 204 204
3.09326 0.317 2.79788 204 204 204
3.15126 0.24 2.76588 204 204 204
2.83826 0.363 2.69188 204 204 204
2.89526 0.141 2.49788 204 204 204
2.86126 0.19 2.58288 204 204 204
2.82426 -0 2.69588 204 204 204
2.81326 0.21 2.74088 204 204 204
2.97326 0.182 1.99088 204 204 204
2.78226 0.199 2.84888 204 204 204
2.82426 0.39 2.79788 204 204 204
2.89926 0.095 2.48788 204 204 204
3.14426 0.215 2.71188 204 204 204
3.03726 0.329 2.71088 204 204 204
2.86826 0.217 2.56188 204 204 204
2.78626 0.239 2.83588 204 204 204
3.21926 0.097 2.81288 204 204 204
2.80126 -0 2.78388 204 204 204
2.86926 0.1 2.56788 204 204 204
2.87426 0.391 2.83488 204 204 204
2.86026 0.074 2.59388 204 204 204
3.01926 -0 2.50288 204 204 204
2.80226 0.156 2.78288 204 204 204
2.91926 0.386 2.79788 204 204 204
2.92726 0.543 2.44288 204 204 204
3.10426 0.245 2.67188 204 204 204
2.79126 0.319 2.82088 204 204 204
2.88226 0.079 2.52988 204 204 204
2.88826 0.042 2.51488 204 204 204
2.87926 0.117 2.53888 204 204 204
2.88626 0.106 2.51688 204 204 204
3.13926 0.281 2.84588 204 204 204
2.95726 0.101 2.47988 204 204 204
2.79726 0.069 2.80088 204 204 204
2.91426 -0 2.80688 204 204 204
2.81426 0.247 2.73688 204 204 204
3.14426 0.18 2.67888 204 204 204
2.85626 0.27 2.59588 204 204 204
3.04826 0.125 2.54388 204 204 204
2.94726 0.369 2.72588 204 204 204
3.05526 0.025 2.53088 204 204 204
2.93726 0.376 2.74988 204 204 204
2.86526 0.296 2.58288 204 204 204
2.82626 0.323 2.69988 204 204 204
3.03726 -0 2.51588 204 204 204
3.07126 0.075 2.54988 204 204 204
2.78726 0.373 2.84488 204 204 204
2.84626 0.354 2.66588 204 204 204
2.89226 0.067 2.50188 204 204 204
2.87026 0.084 2.56388 204 204 204
3.01826 0.051 2.50588 204 204 204
2.88726 0.131 2.51488 204 204 204
2.88326 0.2 2.52588 204 204 204
3.13626 0.072 2.61688 204 204 204
2.83626 -0 2.65588 204 204 204
2.85026 0.074 2.61988 204 204 204
2.81126 0.13 2.74588 204 204 204
2.93026 0.076 2.46888 204 204 204
3.03426 0.273 2.62088 204 204 204
3.01826 0.351 2.74788 204 204 204
3.17126 0.069 2.66988 204 204 204
3.21226 0.099 2.78988 204 204 204
2.82826 0.341 2.69588 204 204 204
3.08426 0.328 2.84388 204 204 204
3.15026 0.048 2.63188 204 204 204
3.18726 0.204 2.82788 204 204 204
3.12326 0.049 2.59788 204 204 204
2.87926 0.219 2.53588 204 204 204
2.88526 0.72 2.44288 204 204 204
2.91626 0.1 2.47488 204 204 204
2.85826 0.238 2.59088 204 204 204
2.79126 0.36 2.82188 204 204 204
2.90326 0.237 2.51988 204 204 204
2.88026 0.246 2.53988 204 204 204
3.10926 -0 2.57788 204 204 204
2.84726 0.215 2.62288 204 204 204
2.81626 0.106 2.72888 204 204 204
2.96026 0.051 2.47288 204 204 204
2.86626 0.241 2.56788 204 204 204
3.03726 0.304 2.66388 204 204 204
3.22426 0.113 2.84488 204 204 204
3.09526 0.229 2.64588 204 204 204
2.83326 0.381 2.74488 204 204 204
2.96726 0.365 2.16888 204 204 204
3.21626 0.06 2.78288 204 204 204
2.99426 0.238 2.55788 204 204 204
3.08126 0.147 2.58088 204 204 204
2.86226 0.224 2.57888 204 204 204
2.78326 0.046 2.84488 204 204 204
2.79726 0.158 2.80088 204 204 204
3.17226 0.046 2.66688 204 204 204
2.83726 0.179 2.65288 204 204 204
3.14226 0.245 2.74888 204 204 204
2.79726 0.379 2.82288 204 204 204
2.92226 0.295 2.56688 204 204 204
2.78526 0.29 2.83888 204 204 204
2.91426 0.025 2.46888 204 204 204
2.86626 0.016 2.57888 204 204 204
2.87226 0.068 2.56088 204 204 204
2.83226 0.056 2.66788 204 204 204
2.85626 0.328 2.61988 204 204 204
2.90026 -0 2.48388 204 204 204
3.19626 0.065 2.72388 204 204 204
2.90626 0.311 2.57988 204 204 204
2.85126 -0 2.61788 204 204 204
2.87126 0.371 2.69288 204 204 204
2.88826 0.021 2.51388 204 204 204
2.88826 0.086 2.51288 204 204 204
2.91926 -0 2.46588 204 204 204
2.99126 -0 2.16888 204 204 204
2.97826 0.377 2.82988 204 204 204
3.16426 0.173 2.71288 204 204 204
3.20426 0.042 2.74088 204 204 204
2.84726 0.384 2.74588 204 204 204
2.89226 0.233 2.52288 204 204 204
2.84226 0.132 2.63888 204 204 204
2.80926 0.268 2.75588 204 204 204
2.87726 0.093 2.54388 204 204 204
2.85026 0.06 2.61988 204 204 204
2.87126 0.169 2.55788 204 204 204
3.17826 0.09 2.69088 204 204 204
2.91326 0.258 2.53288 204 204 204
3.16726 0.229 2.79988 204 204 204
2.89426 0.022 2.49688 204 204 204
3.14626 0.27 2.83288 204 204 204
2.85326 0.343 2.64088 204 204 204
3.00526 0.369 2.84888 204 204 204
2.87026 0.391 2.80688 204 204 204
3.20926 0.118 2.79388 204 204 204
2.94826 0.35 2.67088 204 204 204
2.81226 0.171 2.74388 204 204 204
2.87726 0.214 2.53988 204 204 204
2.88226 0.223 2.53188 204 204 204
3.01126 0.292 2.62088 204 204 204
2.80326 0.271 2.77788 204 204 204
2.78026 0.256 2.85288 204 204 204
3.04526 0.316 2.69388 204 204 204
2.84326 0.065 2.63688 204 204 204
3.14426 0.255 2.77688 204 204 204
2.94926 0.18 2.62588 204 204 204
3.00226 0.026 2.49288 204 204 204
2.98326 0.101 2.49188 204 204 204
3.08226 0.295 2.70888 204 204 204
3.01726 0.076 2.50888 204 204 204
2.95526 0.36 2.70288 204 204 204
2.95826 0.196 2.51188 204 204 204
2.82626 0.235 2.69488 204 204 204
3.22426 0.039 2.80388 204 204 204
2.81026 0.299 2.75288 204 204 204
2.91026 0.238 2.51988 204 204 204
2.99226 0.374 2.83888 204 204 204
3.00626 0.257 2.58188 204 204 204
2.85826 0.203 2.59288 204 204 204
3.10126 0.209 2.63588 204 204 204
2.85126 0.24 2.61088 204 204 204
2.82026 0.021 2.71288 204 204 204
2.87026 0.122 2.56288 204 204 204
3.02726 0.149 2.53588 204 204 204
3.12026 0.288 2.78488 204 204 204
2.93326 0.385 2.80488 204 204 204
2.89726 0.118 2.49288 204 204 204
3.10626 0.188 2.62788 204 204 204
3.20926 0.151 2.82888 204 204 204
2.94526 0.362 2.53388 204 204 204
2.81926 0.33 2.72388 204 204 204
2.84526 0.201 2.62888 204 204 204
3.06026 0.313 2.70888 204 204 204
3.10126 0.306 2.78288 204 204 204
2.82426 0.04 2.69588 204 204 204
2.89126 0.022 2.50488 204 204 204
2.85126 0.113 2.61488 204 204 204
2.84326 0.366 2.69088 204 204 204
2.85626 0.305 2.60288 204 204 204
3.23326 -0 2.82988 204 204 204
2.80226 0.177 2.78188 204 204 204
2.85726 0.146 2.59788 204 204 204
2.82226 0.273 2.70988 204 204 204
3.06426 0.342 2.84688 204 204 204
3.18526 0.193 2.79988 204 204 204
3.00026 0.275 2.59388 204 204 204
2.83326 0.187 2.66788 204 204 204
2.79726 0.331 2.79888 204 204 204
2.90626 0.147 2.48788 204 204 204
3.07426 0.309 2.72288 204 204 204
2.90326 0.34 2.62188 204 204 204
2.79226 0.2 2.81788 204 204 204
3.13426 0.096 2.62088 204 204 204
3.02926 0.236 2.58388 204 204 204
2.80826 0.214 2.76088 204 204 204
2.83226 0.019 2.66788 204 204 204
2.79326 0.382 2.84588 204 204 204
3.16126 0.251 2.83888 204 204 204
2.85826 0.099 2.59688 204 204 204
2.89826 0.07 2.48888 204 204 204
3.10126 0.122 2.59088 204 204 204
2.84326 0.186 2.63488 204 204 204
2.85926 0.087 2.59488 204 204 204
2.81626 0.147 2.72688 204 204 204
2.82126 0.258 2.71288 204 204 204
3.00226 0.369 2.81888 204 204 204
3.08326 0.266 2.66788 204 204 204
2.86326 0.076 2.58488 204 204 204
2.87326 0.231 2.55088 204 204 204
3.12526 0.266 2.74388 204 204 204
2.81526 0.36 2.74688 204 204 204
2.79126 0.291 2.81988 204 204 204
2.79226 0.023 2.81688 204 204 204
2.98726 0.357 2.72388 204 204 204
2.93426 0.295 2.57088 204 204 204
2.89026 0.354 2.80688 204 204 204
2.92226 0.218 2.50988 204 204 204
2.89226 0.138 2.50288 204 204 204
2.81726 0.388 2.79788 204 204 204
3.19026 0.022 2.70188 204 204 204
2.88526 0.02 2.52388 204 204 204
3.13926 0.2 2.68688 204 204 204
2.90126 0.276 2.54488 204 204 204
3.08726 0.305 2.73788 204 204 204
2.86226 0.291 2.58588 204 204 204
2.86026 0.713 2.62588 204 204 204
3.16826 0.188 2.73788 204 204 204
2.89526 0.723 2.16888 204 204 204
2.84726 0.106 2.62488 204 204 204
2.87726 0.036 2.54588 204 204 204
2.89626 0.189 2.50588 204 204 204
3.20926 0.062 2.76188 204 204 204
2.92926 0.173 2.49288 204 204 204
2.81626 0.279 2.73188 204 204 204
2.98626 0.026 2.48388 204 204 204
2.82226 0.182 2.70488 204 204 204
2.88326 0.271 2.54788 204 204 204
3.12926 0.282 2.80088 204 204 204
2.86726 0.115 2.57188 204 204 204
2.84626 0.335 2.64388 204 204 204
2.87126 0.145 2.55988 204 204 204
2.84726 0.062 2.62788 204 204 204
2.80226 0.236 2.77988 204 204 204
3.00026 0.076 2.49688 204 204 204
2.92326 0.076 2.46988 204 204 204
3.09726 0.263 2.68388 204 204 204
2.88826 0.292 2.55988 204 204 204
2.85826 -0 2.59988 204 204 204
3.18026 0.209 2.80888 204 204 204
2.93626 -0 2.71688 204 204 204
2.90826 0.171 2.49288 204 204 204
3.09026 0.312 2.76788 204 204 204
3.08126 0.323 2.78388 204 204 204
2.85426 0.157 2.60488 204 204 204
2.90326 0.294 2.56088 204 204 204
2.90826 0.074 2.47588 204 204 204
2.93826 0.076 2.46988 204 204 204
2.88926 0.208 2.51788 204 204 204
2.84826 0.154 2.61988 204 204 204
2.79226 0.115 2.81688 204 204 204
3.20726 0.082 2.76488 204 204 204
2.86926 0.049 2.56988 204 204 204
2.92426 0.387 2.82688 204 204 204
3.15426 0.257 2.82188 204 204 204
2.86126 0.256 2.58088 204 204 204
2.87826 0.018 2.54488 204 204 204
2.81226 0.376 2.77188 204 204 204
3.06026 0.338 2.78688 204 204 204
2.84926 0.274 2.61688 204 204 204
2.92326 0.258 2.53488 204 204 204
2.92426 0.149 2.48388 204 204 204
2.86526 0.152 2.57488 204 204 204
2.79026 0.88 2.71688 204 204 204
2.80926 0.251 2.75788 204 204 204
3.13026 0.287 2.82888 204 204 204
2.92526 -0 2.46388 204 204 204
2.88326 0.308 2.57688 204 204 204
2.98626 0.196 2.52788 204 204 204
3.18026 0.068 2.68788 204 204 204
2.88426 0.379 2.72488 204 204 204
3.05126 0.1 2.53888 204 204 204
2.78326 0.114 2.84488 204 204 204
2.87426 0.285 2.56488 204 204 204
3.12826 0.142 2.63088 204 204 204
2.80726 0.364 2.77288 204 204 204
2.96126 -0 2.46988 204 204 204
2.93826 0.239 2.52588 204 204 204
2.80526 0.349 2.77388 204 204 204
2.97126 0.358 2.71288 204 204 204
2.78726 0.069 2.83188 204 204 204
3.13726 0.162 2.65388 204 204 204
2.97826 0.366 2.74488 204 204 204
2.82426 0.391 2.84888 204 204 204
2.85826 0.015 2.59988 204 204 204
2.82426 0.06 2.69588 204 204 204
2.79726 0.318 2.79888 204 204 204
2.81226 0.345 2.74788 204 204 204
2.97826 0.15 2.50288 204 204 204
3.22526 0.02 2.80288 204 204 204
3.12226 0.073 2.59988 204 204 204
3.19526 0.199 2.85088 204 204 204
2.87226 0.304 2.57888 204 204 204
2.96726 0.38 2.84988 204 204 204
2.88126 0.098 2.53388 204 204 204
2.87126 0.225 2.55588 204 204 204
2.94126 0.311 2.59388 204 204 204
2.87426 0.017 2.55588 204 204 204
2.87326 0.259 2.55488 204 204 204
2.93426 0.544 2.35088 204 204 204
3.17526 0.233 2.84688 204 204 204
3.15626 0.116 2.65988 204 204 204
2.81626 0.127 2.72788 204 204 204
2.81526 0.022 2.72988 204 204 204
2.93226 0.15 2.48488 204 204 204
2.92626 0.361 2.68488 204 204 204
3.05626 0.333 2.75588 204 204 204
2.81526 0.086 2.72988 204 204 204
2.87326 0.379 2.72188 204 204 204
3.15726 0.224 2.75588 204 204 204
2.85026 0.088 2.61888 204 204 204
2.78626 0.2 2.83388 204 204 204
2.87726 0.306 2.57788 204 204 204
3.20426 0.168 2.83488 204 204 204
2.81726 0.366 2.74588 204 204 204
3.10626 0.074 2.58288 204 204 204
2.82426 0.02 2.69588 204 204 204
2.84626 0.252 2.62588 204 204 204
2.95626 0.363 2.44288 204 204 204
2.87626 0.184 2.54288 204 204 204
2.88026 0.195 2.53088 204 204 204
2.86526 0.129 2.57788 204 204 204
2.92726 0.239 2.52288 204 204 204
2.78426 0.342 2.84288 204 204 204
2.84126 0.375 2.71688 204 204 204
2.88126 0.371 2.69588 204 204 204
3.07426 -0 2.54588 204 204 204
2.85226 0.292 2.60888 204 204 204
2.91726 0.075 2.47088 204 204 204
2.81626 0.391 2.84788 204 204 204
2.83026 0.134 2.67688 204 204 204
2.91026 0.326 2.60188 204 204 204
2.88526 0.227 2.52788 204 204 204
2.86826 0.064 2.57188 204 204 204
2.84326 0.096 2.63488 204 204 204
3.14426 0.118 2.64288 204 204 204
2.81126 0.151 2.74588 204 204 204
2.78326 0.136 2.84588 204 204 204
2.92826 0.311 2.58788 204 204 204
2.82726 0.251 2.69188 204 204 204
3.13826 0.024 2.61288 204 204 204
2.84726 0.177 2.62388 204 204 204
3.12026 0.097 2.60388 204 204 204
2.97326 -0 2.47588 204 204 204
3.20326 0.063 2.74288 204 204 204
2.84026 -0 2.64588 204 204 204
2.89626 0.213 2.51288 204 204 204
2.94026 0.277 2.55688 204 204 204
3.18426 0.109 2.71288 204 204 204
3.18826 0.127 2.73688 204 204 204
2.91426 0.383 2.76688 204 204 204
2.81826 0.206 2.72088 204 204 204
2.89726 0.023 2.49088 204 204 204
2.85326 0.108 2.60888 204 204 204
2.87726 0.242 2.54288 204 204 204
3.07926 0.317 2.75288 204 204 204
2.83126 0.169 2.67088 204 204 204
2.99826 0.101 2.50088 204 204 204
2.86426 0.334 2.61688 204 204 204
2.78226 0.179 2.84688 204 204 204
2.78726 0.115 2.83188 204 204 204
2.83126 0.391 2.79888 204 204 204
2.88926 0.135 2.50888 204 204 204
2.82826 0.019 2.68088 204 204 204
2.83226 0.037 2.66788 204 204 204
2.93126 0.36 2.62588 204 204 204
2.90926 0.049 2.47288 204 204 204
2.85526 0.097 2.60388 204 204 204
2.98726 0.309 2.62388 204 204 204
2.78126 0.219 2.84988 204 204 204
2.87026 0.254 2.55888 204 204 204
2.84326 0.391 2.85188 204 204 204
2.89926 0.256 2.53188 204 204 204
2.83226 0.243 2.67188 204 204 204
3.01626 0.365 2.82988 204 204 204
2.93126 0.051 2.46588 204 204 204
2.98226 0.182 2.35088 204 204 204
2.78526 0.257 2.83688 204 204 204
2.94926 0.174 2.49788 204 204 204
2.84626 0.077 2.62788 204 204 204
2.86926 0.033 2.56788 204 204 204
2.89326 0.045 2.49888 204 204 204
3.15826 0.093 2.65588 204 204 204
3.07626 0.283 2.67988 204 204 204
2.81526 -0 2.72988 204 204 204
3.22326 0.059 2.80588 204 204 204
3.02326 0.357 2.77988 204 204 204
2.85826 0.03 2.59988 204 204 204
3.03326 0.215 2.57388 204 204 204
2.82026 0.103 2.71188 204 204 204
2.86026 0.06 2.59288 204 204 204
3.23326 0.019 2.83088 204 204 204
2.88126 0.038 2.53488 204 204 204
2.91626 0.311 2.58288 204 204 204
2.81126 0.088 2.74688 204 204 204
2.86026 0.285 2.58888 204 204 204
3.10426 0.098 2.58688 204 204 204
2.81426 0.229 2.73888 204 204 204
2.80026 0.383 2.82288 204 204 204
2.79226 0.18 2.81788 204 204 204
2.82926 0.211 2.67988 204 204 204
2.96326 0.238 2.53888 204 204 204
3.08726 0.099 2.56988 204 204 204
2.92726 0.125 2.47788 204 204 204
2.90226 0.048 2.48088 204 204 204
2.80226 0.217 2.78088 204 204 204
3.04226 0.353 2.85188 204 204 204
2.83826 0.139 2.64888 204 204 204
2.88526 0.339 2.61788 204 204 204
3.17426 0.224 2.81788 204 204 204
2.90726 0.352 2.64888 204 204 204
2.76926 0.873 2.80688 204 204 204
2.88426 0.25 2.53688 204 204 204
3.16326 0.023 2.64788 204 204 204
2.91126 0.148 2.48588 204 204 204
3.01726 0.274 2.60688 204 204 204
2.84626 0.304 2.62888 204 204 204
2.85026 0.357 2.66488 204 204 204
2.79026 0.342 2.82188 204 204 204
2.86626 0.318 2.59788 204 204 204
2.88426 0.151 2.52088 204 204 204
2.84226 0.709 2.71688 204 204 204
2.78326 -0 2.84488 204 204 204
2.98026 0.324 2.64088 204 204 204
2.79626 0.046 2.80088 204 204 204
2.95526 0.31 2.60288 204 204 204
2.80026 0.367 2.79788 204 204 204
3.11026 0.259 2.69988 204 204 204
2.81326 0.353 2.74788 204 204 204
2.79226 0.069 2.81688 204 204 204
2.92226 0.326 2.60588 204 204 204
2.81726 0.167 2.72588 204 204 204
2.82026 0.383 2.77188 204 204 204
2.83926 0.391 2.79988 204 204 204
2.78726 0.137 2.83188 204 204 204
2.78326 0.092 2.84488 204 204 204
2.92526 0.025 2.46488 204 204 204
2.91226 0.362 2.67888 204 204 204
3.16026 0.244 2.81088 204 204 204
3.19226 0.188 2.81988 204 204 204
2.93326 0.259 2.53788 204 204 204
2.84626 0.14 2.62588 204 204 204
3.19826 0.104 2.74988 204 204 204
3.11626 0.241 2.68888 204 204 204
3.18126 0.045 2.68488 204 204 204
2.98326 0.371 2.77788 204 204 204
2.95426 0.218 2.52088 204 204 204
2.85426 0.391 2.85388 204 204 204
2.85426 0.135 2.60488 204 204 204
2.82326 0.2 2.70188 204 204 204
2.84226 0.322 2.64788 204 204 204
3.15126 0.024 2.63088 204 204 204
2.96826 0.373 2.76688 204 204 204
2.80426 0.378 2.79788 204 204 204
2.85426 0.045 2.61088 204 204 204
2.85026 0.318 2.62288 204 204 204
2.94626 0.196 2.50688 204 204 204
2.83626 0.036 2.65688 204 204 204
2.78426 0.351 2.84388 204 204 204
3.16226 0.047 2.64988 204 204 204
2.97126 0.076 2.48088 204 204 204
2.92726 0.339 2.63288 204 204 204
2.80426 0.386 2.82288 204 204 204
3.13526 0.261 2.75988 204 204 204
2.82026 0.372 2.74588 204 204 204
2.90826 0.277 2.54588 204 204 204
3.14926 0.071 2.63488 204 204 204
2.79926 0.36 2.79788 204 204 204
2.83926 0.388 2.77288 204 204 204
3.01226 0.344 2.71588 204 204 204
2.80826 0.382 2.79788 204 204 204
2.85726 0.126 2.59788 204 204 204
2.89826 0.143 2.49388 204 204 204
2.88426 0.127 2.52188 204 204 204
2.78426 0.305 2.83988 204 204 204
2.84426 0.285 2.63488 204 204 204
3.00326 0.195 2.53888 204 204 204
2.86126 0.53 2.80688 204 204 204
3.12826 0.203 2.66988 204 204 204
2.82326 0.288 2.70688 204 204 204
2.78526 0.367 2.84488 204 204 204
3.05326 0.302 2.67888 204 204 204
3.19026 0.044 2.70388 204 204 204
2.81526 0.38 2.77188 204 204 204
2.89626 0.378 2.72988 204 204 204
2.84126 0.171 2.64088 204 204 204
2.79726 0.386 2.84588 204 204 204
2.84126 0.117 2.64188 204 204 204
2.86826 0.161 2.56588 204 204 204
2.88826 0.231 2.52488 204 204 204
2.78526 0.274 2.83788 204 204 204
2.83926 0.195 2.64788 204 204 204
2.88626 0.18 2.51688 204 204 204
3.23126 0.058 2.83388 204 204 204
3.12226 0.223 2.67888 204 204 204
2.80426 0.328 2.77488 204 204 204
2.85726 0.109 2.59988 204 204 204
2.98426 0.076 2.48788 204 204 204
3.16826 0.153 2.70588 204 204 204
2.97326 0.026 2.47588 204 204 204
2.78426 0.319 2.84088 204 204 204
2.88226 0.122 2.52988 204 204 204
2.82026 0.062 2.71188 204 204 204
2.84926 0.191 2.61788 204 204 204
2.84926 0.368 2.69088 204 204 204
2.92026 0.125 2.47888 204 204 204
2.85326 0.059 2.61088 204 204 204
2.91426 0.124 2.47988 204 204 204
2.87526 0.208 2.54588 204 204 204
3.09026 0.279 2.69588 204 204 204
2.88926 0.362 2.66988 204 204 204
2.91026 0.389 2.82088 204 204 204
3.20126 0.084 2.74588 204 204 204
2.82826 0.194 2.68388 204 204 204
2.85626 0.359 2.66388 204 204 204
2.87626 0.384 2.75188 204 204 204
2.89326 0.34 2.61888 204 204 204
2.85126 0.283 2.61288 204 204 204
2.92426 0.051 2.46688 204 204 204
3.21826 0.02 2.77988 204 204 204
2.98626 0.051 2.48488 204 204 204
2.87326 0.051 2.55888 204 204 204
2.82126 0.348 2.72188 204 204 204
2.88326 0.325 2.59588 204 204 204
3.17326 0.17 2.73088 204 204 204
3.04326 0.338 2.74188 204 204 204
2.87026 0.337 2.61688 204 204 204
3.00326 0.354 2.73488 204 204 204
2.82026 0.241 2.71588 204 204 204
2.85726 0.059 2.60188 204 204 204
2.87026 0.193 2.55888 204 204 204
2.85026 0.045 2.61888 204 204 204
3.06926 0.329 2.76988 204 204 204
2.81726 0.187 2.72388 204 204 204
2.82826 0.058 2.68088 204 204 204
2.83426 0.258 2.66688 204 204 204
2.90026 0.362 2.67388 204 204 204
3.02126 0.332 2.69688 204 204 204
2.82326 0.392 2.82388 204 204 204
2.79226 0.046 2.81688 204 204 204
2.84726 0.377 2.71788 204 204 204
3.13326 0.183 2.66188 204 204 204
2.90926 0.025 2.47188 204 204 204
2.86526 0.27 2.57288 204 204 204
2.89726 0.311 2.57788 204 204 204
2.80626 0.357 2.77288 204 204 204
2.84026 0.051 2.64588 204 204 204
2.93526 0.196 2.50288 204 204 204
2.81226 0.191 2.74288 204 204 204
2.87026 -0 2.56688 204 204 204
2.96326 0.38 2.82088 204 204 204
2.98126 -0 2.44288 204 204 204
2.90126 0.538 2.62588 204 204 204
2.83226 0.894 2.44288 204 204 204
2.84026 0.017 2.64588 204 204 204
2.78726 0.092 2.83188 204 204 204
2.79726 0.29 2.79888 204 204 204
2.94926 0.325 2.62088 204 204 204
3.06026 0.171 2.57188 204 204 204
2.92126 0.173 2.49188 204 204 204
2.79726 0.238 2.79988 204 204 204
2.85526 0.117 2.60388 204 204 204
2.85226 0.125 2.60988 204 204 204
2.92826 0.277 2.55188 204 204 204
2.83926 0.249 2.64888 204 204 204
2.87226 0.201 2.55188 204 204 204
2.79226 0.137 2.81688 204 204 204
2.96726 0.218 2.52788 204 204 204
2.85526 0.378 2.71788 204 204 204
2.88126 0.019 2.53388 204 204 204
2.95026 -0 2.46688 204 204 204
2.90726 0.216 2.50988 204 204 204
2.83526 0.272 2.66288 204 204 204
2.88926 0.11 2.50988 204 204 204
2.80426 0.302 2.77688 204 204 204
2.81926 0.224 2.71788 204 204 204
2.79726 0.092 2.80088 204 204 204
2.85826 0.346 2.63988 204 204 204
2.99826 0.367 2.78788 204 204 204
2.94726 0.294 2.57788 204 204 204
2.84526 0.126 2.62988 204 204 204
2.86726 0.185 2.56588 204 204 204
3.09026 0.05 2.56388 204 204 204
2.80826 0.233 2.75988 204 204 204
2.87926 0.141 2.53588 204 204 204
3.17526 0.111 2.69488 204 204 204
3.02126 0.306 2.64988 204 204 204
2.87326 0.128 2.55388 204 204 204
2.94526 0.258 2.54288 204 204 204
3.16026 0.07 2.65188 204 204 204
3.11426 0.144 2.61388 204 204 204
2.95026 0.026 2.46688 204 204 204
2.85526 0.192 2.59988 204 204 204
2.99426 0.293 2.60788 204 204 204
2.80626 0.023 2.76588 204 204 204
2.83426 0.203 2.66288 204 204 204
3.03826 0.194 2.56488 204 204 204
2.87326 0.177 2.54988 204 204 204
2.98826 0.336 2.67088 204 204 204
2.81526 0.043 2.72988 204 204 204
2.89726 0.235 2.52088 204 204 204
2.80626 0.089 2.76588 204 204 204
2.88326 0.534 2.71688 204 204 204
2.99026 0.173 2.51988 204 204 204
2.99326 0.363 2.75588 204 204 204
2.94126 0.339 2.63988 204 204 204
2.89926 0.024 2.48488 204 204 204
2.96926 0.101 2.48488 204 204 204
2.82426 0.1 2.69488 204 204 204
3.03326 0.101 2.52488 204 204 204
2.83126 0.37 2.71788 204 204 204
2.87526 0.072 2.55088 204 204 204
2.94826 0.383 2.81188 204 204 204
2.84926 0.34 2.64188 204 204 204
2.79726 0.274 2.79988 204 204 204
2.84726 0.389 2.77388 204 204 204
2.90126 0.215 2.51088 204 204 204
2.78726 0.159 2.83288 204 204 204
2.83626 0.219 2.65788 204 204 204
3.17326 0.023 2.66588 204 204 204
2.86426 0.062 2.58288 204 204 204
2.98026 0.348 2.69088 204 204 204
2.98126 0.126 2.49688 204 204 204
2.87026 0.362 2.66488 204 204 204
2.87826 -0 2.54388 204 204 204
2.99626 0.346 2.70288 204 204 204
2.84326 0.148 2.63488 204 204 204
2.86326 0.349 2.63988 204 204 204
2.80726 0.195 2.76188 204 204 204
2.84926 0.391 2.80188 204 204 204
2.81126 -0 2.74788 204 204 204
3.02826 0.341 2.72888 204 204 204
2.94126 0.15 2.48688 204 204 204
2.95626 0.338 2.64888 204 204 204
2.89526 0.069 2.49488 204 204 204
3.15326 0.249 2.79288 204 204 204
2.88926 0.159 2.50988 204 204 204
3.05526 -0 2.52988 204 204 204
3.06126 0.286 2.66488 204 204 204
2.93426 0.351 2.66188 204 204 204
3.21626 0.116 2.81688 204 204 204
2.85526 0.385 2.74688 204 204 204
2.80826 0.39 2.84688 204 204 204
2.88026 0.057 2.53688 204 204 204
2.93526 0.126 2.47888 204 204 204
1.42282 2.48444 1.90366 204 204 204
1.43582 2.14444 1.11766 204 204 204
1.47782 2.21744 1.25966 204 204 204
1.62082 2.12944 1.25966 204 204 204
1.14582 2.28744 1.11766 204 204 204
1.08882 2.62244 1.90366 204 204 204
0.88682 2.57144 1.48766 204 204 204
1.21682 2.46044 1.48766 204 204 204
1.19182 2.39944 1.33366 204 204 204
1.33082 2.29644 1.25966 204 204 204
1.29282 2.22044 1.11766 204 204 204
1.77882 2.06144 1.33366 204 204 204
1.52982 2.30644 1.48766 204 204 204
1.00782 2.38544 1.18766 204 204 204
1.64082 2.16044 1.33366 204 204 204
1.70482 1.96444 1.11766 204 204 204
0.91082 2.66144 1.81666 204 204 204
1.73182 1.99944 1.18766 204 204 204
0.89382 2.59844 1.56766 204 204 204
1.03282 2.45944 1.33366 204 204 204
1.08382 2.60844 1.81666 204 204 204
1.45782 2.18244 1.18766 204 204 204
1.75682 2.03144 1.25966 204 204 204
1.51382 2.27944 1.40966 204 204 204
1.25282 2.54544 1.81666 204 204 204
1.57582 2.38644 1.81666 204 204 204
1.56682 2.37044 1.73166 204 204 204
1.34682 2.33044 1.33366 204 204 204
1.38782 2.41344 1.56766 204 204 204
1.37582 2.38844 1.48766 204 204 204
1.67782 2.21444 1.48766 204 204 204
1.31282 2.26044 1.18766 204 204 204
